69.2820323027551,100,0
69.2820323027551,104,0
69.2820323027551,108,0
69.2820323027551,112,0
69.2820323027551,116,12.197661399841309
69.2820323027551,120,12.085517883300781
69.2820323027551,124,12.046249389648438
69.2820323027551,128,12.412764549255371
69.2820323027551,132,12.548813819885254
69.2820323027551,136,12.462188720703125
69.2820323027551,140,12.153343200683594
69.2820323027551,144,12.078841209411621
69.2820323027551,148,0
69.2820323027551,152,0
69.2820323027551,156,0
69.2820323027551,160,0
69.2820323027551,164,0
69.2820323027551,168,0
69.2820323027551,172,0
69.2820323027551,176,0
69.2820323027551,180,0
69.2820323027551,184,0
69.2820323027551,188,0
69.2820323027551,192,0
69.2820323027551,196,0
72.74613391789285,1.9999999999999998,0
72.74613391789285,6.0,0
72.74613391789285,10.0,0
72.74613391789285,14.0,0
72.74613391789285,18.0,0
72.74613391789285,22.0,0
72.74613391789285,26.0,0
72.74613391789285,30.0,0
72.74613391789285,34.0,0
72.74613391789285,38.0,0
72.74613391789285,42.0,0
72.74613391789285,46.0,0
72.74613391789285,50.0,0
72.74613391789285,54.0,0
72.74613391789285,58.0,0
72.74613391789285,62.0,0
72.74613391789285,66.0,0
72.74613391789285,70.0,0
72.74613391789285,74.0,0
72.74613391789285,78.0,0
72.74613391789285,82.0,0
72.74613391789285,86.0,0
72.74613391789285,90.0,0
72.74613391789285,94.0,0
72.74613391789285,98.0,0
72.74613391789285,102.0,0
72.74613391789285,106.0,0
72.74613391789285,110.0,0
72.74613391789285,114.0,13.542131423950195
72.74613391789285,118.0,13.593381881713867
72.74613391789285,122.0,13.363289833068848
72.74613391789285,126.0,12.998461723327637
72.74613391789285,130.0,12.788311004638672
72.74613391789285,134.0,12.528302192687988
72.74613391789285,138.0,11.457792282104492
72.74613391789285,142.0,3.71162748336792
72.74613391789285,146.0,0
72.74613391789285,150.0,0
72.74613391789285,154.0,0
72.74613391789285,158.0,0
72.74613391789285,162.0,0
72.74613391789285,166.0,0
72.74613391789285,170.0,0
72.74613391789285,174.0,0
72.74613391789285,178.0,0
72.74613391789285,182.0,0
72.74613391789285,186.0,0
72.74613391789285,190.0,0
72.74613391789285,194.0,0
76.21023553303061,0,0
76.21023553303061,4,0
76.21023553303061,8,0
76.21023553303061,12,0
76.21023553303061,16,0
76.21023553303061,20,0
76.21023553303061,24,0
76.21023553303061,28,0
76.21023553303061,32,0
76.21023553303061,36,0
76.21023553303061,40,0
76.21023553303061,44,0
76.21023553303061,48,0
76.21023553303061,52,0
76.21023553303061,56,0
76.21023553303061,60,0
76.21023553303061,64,0
76.21023553303061,68,0
76.21023553303061,72,0
76.21023553303061,76,0
76.21023553303061,80,0
76.21023553303061,84,0
76.21023553303061,88,0
76.21023553303061,92,0
76.21023553303061,96,0
76.21023553303061,100,0
76.21023553303061,104,0
76.21023553303061,108,0
76.21023553303061,112,0
76.21023553303061,116,0
76.21023553303061,120,0
76.21023553303061,124,0
76.21023553303061,128,0
76.21023553303061,132,0
76.21023553303061,136,1.1488416194915771
76.21023553303061,140,3.295013666152954
76.21023553303061,144,0
76.21023553303061,148,0
76.21023553303061,152,0
76.21023553303061,156,0
76.21023553303061,160,0
76.21023553303061,164,0
76.21023553303061,168,0
76.21023553303061,172,0
76.21023553303061,176,0
76.21023553303061,180,0
76.21023553303061,184,0
76.21023553303061,188,0
76.21023553303061,192,0
76.21023553303061,196,0
79.67433714816836,1.9999999999999998,0
79.67433714816836,6.0,0
79.67433714816836,10.0,0
79.67433714816836,14.0,0
79.67433714816836,18.0,0
79.67433714816836,22.0,0
79.67433714816836,26.0,0
79.67433714816836,30.0,0
79.67433714816836,34.0,0
79.67433714816836,38.0,0
79.67433714816836,42.0,0
79.67433714816836,46.0,0
79.67433714816836,50.0,0
79.67433714816836,54.0,0
79.67433714816836,58.0,0
79.67433714816836,62.0,0
79.67433714816836,66.0,0
79.67433714816836,70.0,0
79.67433714816836,74.0,0
79.67433714816836,78.0,0
79.67433714816836,82.0,0
79.67433714816836,86.0,0
79.67433714816836,90.0,0
79.67433714816836,94.0,0
79.67433714816836,98.0,0
79.67433714816836,102.0,0
79.67433714816836,106.0,0
79.67433714816836,110.0,0
79.67433714816836,114.0,0
79.67433714816836,118.0,0
79.67433714816836,122.0,0
79.67433714816836,126.0,0
79.67433714816836,130.0,0
79.67433714816836,134.0,0
79.67433714816836,138.0,3.0619592666625977
79.67433714816836,142.0,2.82330322265625
79.67433714816836,146.0,0
79.67433714816836,150.0,0
79.67433714816836,154.0,0
79.67433714816836,158.0,0
79.67433714816836,162.0,0
79.67433714816836,166.0,0
79.67433714816836,170.0,0
79.67433714816836,174.0,0
79.67433714816836,178.0,0
79.67433714816836,182.0,0
79.67433714816836,186.0,0
79.67433714816836,190.0,0
79.67433714816836,194.0,0
83.13843876330611,0,0
83.13843876330611,4,0
83.13843876330611,8,0
83.13843876330611,12,0
83.13843876330611,16,0
83.13843876330611,20,0
83.13843876330611,24,0
83.13843876330611,28,0
83.13843876330611,32,0
83.13843876330611,36,0
83.13843876330611,40,0
83.13843876330611,44,0
83.13843876330611,48,0
83.13843876330611,52,0
83.13843876330611,56,0
83.13843876330611,60,0
83.13843876330611,64,0
83.13843876330611,68,0
83.13843876330611,72,0
83.13843876330611,76,0
83.13843876330611,80,0
83.13843876330611,84,0
83.13843876330611,88,0
83.13843876330611,92,0
83.13843876330611,96,0
83.13843876330611,100,0
83.13843876330611,104,0
83.13843876330611,108,0
83.13843876330611,112,0
83.13843876330611,116,0
83.13843876330611,120,0
83.13843876330611,124,0
83.13843876330611,128,0
83.13843876330611,132,0
83.13843876330611,136,2.610502004623413
83.13843876330611,140,4.02855920791626
83.13843876330611,144,2.008906841278076
83.13843876330611,148,0
83.13843876330611,152,0
83.13843876330611,156,0
83.13843876330611,160,0
83.13843876330611,164,0
83.13843876330611,168,0
83.13843876330611,172,0
83.13843876330611,176,0
83.13843876330611,180,0
83.13843876330611,184,0
83.13843876330611,188,0
83.13843876330611,192,0
83.13843876330611,196,0
86.60254037844388,1.9999999999999998,0
86.60254037844388,6.0,0
86.60254037844388,10.0,0
86.60254037844388,14.0,0
86.60254037844388,18.0,0
86.60254037844388,22.0,0
86.60254037844388,26.0,0
86.60254037844388,30.0,0
86.60254037844388,34.0,0
86.60254037844388,38.0,0
86.60254037844388,42.0,0
86.60254037844388,46.0,0
86.60254037844388,50.0,0
86.60254037844388,54.0,0
86.60254037844388,58.0,0
86.60254037844388,62.0,0
86.60254037844388,66.0,0
86.60254037844388,70.0,0
86.60254037844388,74.0,0
86.60254037844388,78.0,0
86.60254037844388,82.0,0
86.60254037844388,86.0,0
86.60254037844388,90.0,0
86.60254037844388,94.0,0
86.60254037844388,98.0,0
86.60254037844388,102.0,0
86.60254037844388,106.0,0
86.60254037844388,110.0,0
86.60254037844388,114.0,0
86.60254037844388,118.0,0
86.60254037844388,122.0,0
86.60254037844388,126.0,0
86.60254037844388,130.0,0
86.60254037844388,134.0,0
86.60254037844388,138.0,2.8897507190704346
86.60254037844388,142.0,2.741960048675537
86.60254037844388,146.0,0
86.60254037844388,150.0,0
86.60254037844388,154.0,0
86.60254037844388,158.0,0
86.60254037844388,162.0,0
86.60254037844388,166.0,0
86.60254037844388,170.0,0
86.60254037844388,174.0,0
86.60254037844388,178.0,0
86.60254037844388,182.0,0
86.60254037844388,186.0,0
86.60254037844388,190.0,0
86.60254037844388,194.0,0
90.06664199358163,0,0
90.06664199358163,4,0
90.06664199358163,8,0
90.06664199358163,12,0
90.06664199358163,16,0
90.06664199358163,20,0
90.06664199358163,24,0
90.06664199358163,28,0
90.06664199358163,32,0
90.06664199358163,36,0
90.06664199358163,40,0
90.06664199358163,44,0
90.06664199358163,48,0
90.06664199358163,52,0
90.06664199358163,56,0
90.06664199358163,60,0
90.06664199358163,64,0
90.06664199358163,68,0
90.06664199358163,72,0
90.06664199358163,76,0
90.06664199358163,80,0
90.06664199358163,84,0
90.06664199358163,88,0
90.06664199358163,92,0
90.06664199358163,96,0
90.06664199358163,100,0
90.06664199358163,104,0
90.06664199358163,108,0
90.06664199358163,112,0
90.06664199358163,116,0
90.06664199358163,120,0
90.06664199358163,124,0
90.06664199358163,128,0
90.06664199358163,132,0
90.06664199358163,136,0
90.06664199358163,140,0
90.06664199358163,144,0
90.06664199358163,148,0
90.06664199358163,152,0
90.06664199358163,156,0
90.06664199358163,160,0
90.06664199358163,164,0
90.06664199358163,168,0
90.06664199358163,172,0
90.06664199358163,176,0
90.06664199358163,180,0
90.06664199358163,184,0
90.06664199358163,188,0
90.06664199358163,192,0
90.06664199358163,196,0
93.53074360871938,1.9999999999999998,0
93.53074360871938,6.0,0
93.53074360871938,10.0,0
93.53074360871938,14.0,0
93.53074360871938,18.0,0
93.53074360871938,22.0,0
93.53074360871938,26.0,0
93.53074360871938,30.0,0
93.53074360871938,34.0,0
93.53074360871938,38.0,0
93.53074360871938,42.0,0
93.53074360871938,46.0,0
93.53074360871938,50.0,0
93.53074360871938,54.0,0
93.53074360871938,58.0,0
93.53074360871938,62.0,0
93.53074360871938,66.0,0
93.53074360871938,70.0,0
93.53074360871938,74.0,0
93.53074360871938,78.0,0
93.53074360871938,82.0,0
93.53074360871938,86.0,0
93.53074360871938,90.0,0
93.53074360871938,94.0,0
93.53074360871938,98.0,0
93.53074360871938,102.0,0
93.53074360871938,106.0,0
93.53074360871938,110.0,0
93.53074360871938,114.0,0
93.53074360871938,118.0,0
93.53074360871938,122.0,0
93.53074360871938,126.0,0
93.53074360871938,130.0,0
93.53074360871938,134.0,0
93.53074360871938,138.0,0
93.53074360871938,142.0,0
93.53074360871938,146.0,0
93.53074360871938,150.0,0
93.53074360871938,154.0,0
93.53074360871938,158.0,0
93.53074360871938,162.0,0
93.53074360871938,166.0,0
93.53074360871938,170.0,0
93.53074360871938,174.0,0
93.53074360871938,178.0,0
93.53074360871938,182.0,0
93.53074360871938,186.0,0
93.53074360871938,190.0,0
93.53074360871938,194.0,0
96.99484522385714,0,0
96.99484522385714,4,0
96.99484522385714,8,0
96.99484522385714,12,0
96.99484522385714,16,0
96.99484522385714,20,0
96.99484522385714,24,0
96.99484522385714,28,0
96.99484522385714,32,0
96.99484522385714,36,0
96.99484522385714,40,0
96.99484522385714,44,0
96.99484522385714,48,0
96.99484522385714,52,0
96.99484522385714,56,0
96.99484522385714,60,0
96.99484522385714,64,0
96.99484522385714,68,0
96.99484522385714,72,0
96.99484522385714,76,0
96.99484522385714,80,0
96.99484522385714,84,0
96.99484522385714,88,0
96.99484522385714,92,0
96.99484522385714,96,0
96.99484522385714,100,0
96.99484522385714,104,0
96.99484522385714,108,0
96.99484522385714,112,0
96.99484522385714,116,0
96.99484522385714,120,0
96.99484522385714,124,0
96.99484522385714,128,0
96.99484522385714,132,0
96.99484522385714,136,0
96.99484522385714,140,0
96.99484522385714,144,0
96.99484522385714,148,0
96.99484522385714,152,0
96.99484522385714,156,0
96.99484522385714,160,0
96.99484522385714,164,0
96.99484522385714,168,0
96.99484522385714,172,0
96.99484522385714,176,0
96.99484522385714,180,0
96.99484522385714,184,0
96.99484522385714,188,0
96.99484522385714,192,0
96.99484522385714,196,0
100.45894683899489,1.9999999999999998,0
100.45894683899489,6.0,0
100.45894683899489,10.0,0
100.45894683899489,14.0,0
100.45894683899489,18.0,0
100.45894683899489,22.0,0
100.45894683899489,26.0,0
100.45894683899489,30.0,0
100.45894683899489,34.0,0
100.45894683899489,38.0,0
100.45894683899489,42.0,0
100.45894683899489,46.0,0
100.45894683899489,50.0,0
100.45894683899489,54.0,0
100.45894683899489,58.0,0
100.45894683899489,62.0,0
100.45894683899489,66.0,0
100.45894683899489,70.0,0
100.45894683899489,74.0,0
100.45894683899489,78.0,0
100.45894683899489,82.0,0
100.45894683899489,86.0,0
100.45894683899489,90.0,0
100.45894683899489,94.0,0
100.45894683899489,98.0,0
100.45894683899489,102.0,0
100.45894683899489,106.0,0
100.45894683899489,110.0,0
100.45894683899489,114.0,0
100.45894683899489,118.0,0
100.45894683899489,122.0,0
100.45894683899489,126.0,0
100.45894683899489,130.0,0
100.45894683899489,134.0,0
100.45894683899489,138.0,3.6004040241241455
100.45894683899489,142.0,3.3050453662872314
100.45894683899489,146.0,0
100.45894683899489,150.0,0
100.45894683899489,154.0,0
100.45894683899489,158.0,0
100.45894683899489,162.0,0
100.45894683899489,166.0,0
100.45894683899489,170.0,0
100.45894683899489,174.0,0
100.45894683899489,178.0,0
100.45894683899489,182.0,0
100.45894683899489,186.0,0
100.45894683899489,190.0,0
100.45894683899489,194.0,0
103.92304845413264,0,0
103.92304845413264,4,0
103.92304845413264,8,0
103.92304845413264,12,0
103.92304845413264,16,0
103.92304845413264,20,0
103.92304845413264,24,0
103.92304845413264,28,0
103.92304845413264,32,0
103.92304845413264,36,0
103.92304845413264,40,0
103.92304845413264,44,0
103.92304845413264,48,0
103.92304845413264,52,0
103.92304845413264,56,0
103.92304845413264,60,0
103.92304845413264,64,0
103.92304845413264,68,0
103.92304845413264,72,0
103.92304845413264,76,0
103.92304845413264,80,0
103.92304845413264,84,0
103.92304845413264,88,0
103.92304845413264,92,0
103.92304845413264,96,0
103.92304845413264,100,0
103.92304845413264,104,0
103.92304845413264,108,0
103.92304845413264,112,0
103.92304845413264,116,0
103.92304845413264,120,0
103.92304845413264,124,0
103.92304845413264,128,0
103.92304845413264,132,0
103.92304845413264,136,2.608363151550293
103.92304845413264,140,3.8957812786102295
103.92304845413264,144,2.011664628982544
103.92304845413264,148,0
103.92304845413264,152,0
103.92304845413264,156,0
103.92304845413264,160,0
103.92304845413264,164,0
103.92304845413264,168,0
103.92304845413264,172,0
103.92304845413264,176,0
103.92304845413264,180,0
103.92304845413264,184,0
103.92304845413264,188,0
103.92304845413264,192,0
103.92304845413264,196,0
107.3871500692704,1.9999999999999998,0
107.3871500692704,6.0,0
107.3871500692704,10.0,0
107.3871500692704,14.0,0
107.3871500692704,18.0,0
107.3871500692704,22.0,0
107.3871500692704,26.0,0
107.3871500692704,30.0,0
107.3871500692704,34.0,0
107.3871500692704,38.0,0
107.3871500692704,42.0,0
107.3871500692704,46.0,0
107.3871500692704,50.0,0
107.3871500692704,54.0,0
107.3871500692704,58.0,0
107.3871500692704,62.0,0
107.3871500692704,66.0,0
107.3871500692704,70.0,0
107.3871500692704,74.0,0
107.3871500692704,78.0,0
107.3871500692704,82.0,0
107.3871500692704,86.0,0
107.3871500692704,90.0,0
107.3871500692704,94.0,0
107.3871500692704,98.0,0
107.3871500692704,102.0,0
107.3871500692704,106.0,0
107.3871500692704,110.0,0
107.3871500692704,114.0,0
107.3871500692704,118.0,0
107.3871500692704,122.0,0
107.3871500692704,126.0,0
107.3871500692704,130.0,0
107.3871500692704,134.0,0
107.3871500692704,138.0,3.075653553009033
107.3871500692704,142.0,2.8341052532196045
107.3871500692704,146.0,0
107.3871500692704,150.0,0
107.3871500692704,154.0,0
107.3871500692704,158.0,0
107.3871500692704,162.0,0
107.3871500692704,166.0,0
107.3871500692704,170.0,0
107.3871500692704,174.0,0
107.3871500692704,178.0,0
107.3871500692704,182.0,0
107.3871500692704,186.0,0
107.3871500692704,190.0,0
107.3871500692704,194.0,0
110.85125168440815,0,0
110.85125168440815,4,0
110.85125168440815,8,0
110.85125168440815,12,0
110.85125168440815,16,0
110.85125168440815,20,0
110.85125168440815,24,0
110.85125168440815,28,0
110.85125168440815,32,0
110.85125168440815,36,0
110.85125168440815,40,0
110.85125168440815,44,0
110.85125168440815,48,0
110.85125168440815,52,0
110.85125168440815,56,0
110.85125168440815,60,0
110.85125168440815,64,0
110.85125168440815,68,0
110.85125168440815,72,0
110.85125168440815,76,0
110.85125168440815,80,0
110.85125168440815,84,0
110.85125168440815,88,0
110.85125168440815,92,0
110.85125168440815,96,0
110.85125168440815,100,0
110.85125168440815,104,0
110.85125168440815,108,0
110.85125168440815,112,0
110.85125168440815,116,0
110.85125168440815,120,0
110.85125168440815,124,0
110.85125168440815,128,0
110.85125168440815,132,0
110.85125168440815,136,1.1600959300994873
110.85125168440815,140,3.316214084625244
110.85125168440815,144,0
110.85125168440815,148,0
110.85125168440815,152,0
110.85125168440815,156,0
110.85125168440815,160,0
110.85125168440815,164,0
110.85125168440815,168,0
110.85125168440815,172,0
110.85125168440815,176,0
110.85125168440815,180,0
110.85125168440815,184,0
110.85125168440815,188,0
110.85125168440815,192,0
110.85125168440815,196,0
114.3153532995459,1.9999999999999998,0
114.3153532995459,6.0,0
114.3153532995459,10.0,0
114.3153532995459,14.0,0
114.3153532995459,18.0,0
114.3153532995459,22.0,0
114.3153532995459,26.0,0
114.3153532995459,30.0,0
114.3153532995459,34.0,0
114.3153532995459,38.0,0
114.3153532995459,42.0,0
114.3153532995459,46.0,0
114.3153532995459,50.0,0
114.3153532995459,54.0,0
114.3153532995459,58.0,0
114.3153532995459,62.0,0
114.3153532995459,66.0,0
114.3153532995459,70.0,0
114.3153532995459,74.0,0
114.3153532995459,78.0,0
114.3153532995459,82.0,0
114.3153532995459,86.0,0
114.3153532995459,90.0,0
114.3153532995459,94.0,0
114.3153532995459,98.0,0
114.3153532995459,102.0,0
114.3153532995459,106.0,0
114.3153532995459,110.0,0
114.3153532995459,114.0,13.606982231140137
114.3153532995459,118.0,13.633085250854492
114.3153532995459,122.0,13.403009414672852
114.3153532995459,126.0,13.17289924621582
114.3153532995459,130.0,12.942724227905273
114.3153532995459,134.0,12.712532043457031
114.3153532995459,138.0,11.822653770446777
114.3153532995459,142.0,11.227201461791992
114.3153532995459,146.0,0
114.3153532995459,150.0,0
114.3153532995459,154.0,0
114.3153532995459,158.0,0
114.3153532995459,162.0,0
114.3153532995459,166.0,0
114.3153532995459,170.0,0
114.3153532995459,174.0,0
114.3153532995459,178.0,0
114.3153532995459,182.0,0
114.3153532995459,186.0,0
114.3153532995459,190.0,0
114.3153532995459,194.0,0
117.77945491468367,0,0
117.77945491468367,4,0
117.77945491468367,8,0
117.77945491468367,12,0
117.77945491468367,16,0
117.77945491468367,20,0
117.77945491468367,24,0
117.77945491468367,28,0
117.77945491468367,32,0
117.77945491468367,36,0
117.77945491468367,40,0
117.77945491468367,44,0
117.77945491468367,48,0
117.77945491468367,52,0
117.77945491468367,56,0
117.77945491468367,60,0
117.77945491468367,64,0
117.77945491468367,68,0
117.77945491468367,72,0
117.77945491468367,76,0
117.77945491468367,80,0
117.77945491468367,84,0
117.77945491468367,88,0
117.77945491468367,92,0
117.77945491468367,96,0
117.77945491468367,100,0
117.77945491468367,104,0
117.77945491468367,108,0
117.77945491468367,112,0
117.77945491468367,116,12.205259323120117
117.77945491468367,120,12.00699234008789
117.77945491468367,124,11.859061241149902
117.77945491468367,128,12.213443756103516
117.77945491468367,132,12.377741813659668
117.77945491468367,136,12.469085693359375
117.77945491468367,140,12.071599960327148
117.77945491468367,144,12.125542640686035
117.77945491468367,148,0
117.77945491468367,152,0
117.77945491468367,156,0
117.77945491468367,160,0
117.77945491468367,164,0
117.77945491468367,168,0
117.77945491468367,172,0
117.77945491468367,176,0
117.77945491468367,180,0
117.77945491468367,184,0
117.77945491468367,188,0
117.77945491468367,192,0
117.77945491468367,196,0
121.24355652982142,1.9999999999999998,0
121.24355652982142,6.0,0
121.24355652982142,10.0,0
121.24355652982142,14.0,0
121.24355652982142,18.0,0
121.24355652982142,22.0,0
121.24355652982142,26.0,0
121.24355652982142,30.0,0
121.24355652982142,34.0,0
121.24355652982142,38.0,0
121.24355652982142,42.0,0
121.24355652982142,46.0,0
121.24355652982142,50.0,0
121.24355652982142,54.0,0
121.24355652982142,58.0,0
121.24355652982142,62.0,0
121.24355652982142,66.0,0
121.24355652982142,70.0,0
121.24355652982142,74.0,0
121.24355652982142,78.0,0
121.24355652982142,82.0,0
121.24355652982142,86.0,0
121.24355652982142,90.0,0
121.24355652982142,94.0,0
121.24355652982142,98.0,0
121.24355652982142,102.0,0
121.24355652982142,106.0,0
121.24355652982142,110.0,0
121.24355652982142,114.0,9.329375267028809
121.24355652982142,118.0,12.005645751953125
121.24355652982142,122.0,11.783681869506836
121.24355652982142,126.0,11.560951232910156
121.24355652982142,130.0,11.638012886047363
121.24355652982142,134.0,11.221320152282715
121.24355652982142,138.0,10.894244194030762
121.24355652982142,142.0,10.672151565551758
121.24355652982142,146.0,0
121.24355652982142,150.0,0
121.24355652982142,154.0,0
121.24355652982142,158.0,0
121.24355652982142,162.0,0
121.24355652982142,166.0,0
121.24355652982142,170.0,0
121.24355652982142,174.0,0
121.24355652982142,178.0,0
121.24355652982142,182.0,0
121.24355652982142,186.0,0
121.24355652982142,190.0,0
121.24355652982142,194.0,0
124.70765814495917,0,0
124.70765814495917,4,0
124.70765814495917,8,0
124.70765814495917,12,0
124.70765814495917,16,0
124.70765814495917,20,0
124.70765814495917,24,0
124.70765814495917,28,0
124.70765814495917,32,0
124.70765814495917,36,0
124.70765814495917,40,0
124.70765814495917,44,0
124.70765814495917,48,0
124.70765814495917,52,0
124.70765814495917,56,0
124.70765814495917,60,0
124.70765814495917,64,0
124.70765814495917,68,0
124.70765814495917,72,0
124.70765814495917,76,0
124.70765814495917,80,0
124.70765814495917,84,0
124.70765814495917,88,0
124.70765814495917,92,0
124.70765814495917,96,0
124.70765814495917,100,0
124.70765814495917,104,0
124.70765814495917,108,0
124.70765814495917,112,0
124.70765814495917,116,12.00562572479248
124.70765814495917,120,11.810723304748535
124.70765814495917,124,11.78431510925293
124.70765814495917,128,0
124.70765814495917,132,0
124.70765814495917,136,11.37263011932373
124.70765814495917,140,10.699201583862305
124.70765814495917,144,10.435495376586914
124.70765814495917,148,0
124.70765814495917,152,0
124.70765814495917,156,0
124.70765814495917,160,0
124.70765814495917,164,0
124.70765814495917,168,0
124.70765814495917,172,0
124.70765814495917,176,0
124.70765814495917,180,0
124.70765814495917,184,0
124.70765814495917,188,0
124.70765814495917,192,0
124.70765814495917,196,0
128.17175976009693,1.9999999999999998,0
128.17175976009693,6.0,0
128.17175976009693,10.0,0
128.17175976009693,14.0,0
128.17175976009693,18.0,0
128.17175976009693,22.0,0
128.17175976009693,26.0,0
128.17175976009693,30.0,0
128.17175976009693,34.0,0
128.17175976009693,38.0,0
128.17175976009693,42.0,0
128.17175976009693,46.0,0
128.17175976009693,50.0,0
128.17175976009693,54.0,0
128.17175976009693,58.0,0
128.17175976009693,62.0,0
128.17175976009693,66.0,0
128.17175976009693,70.0,0
128.17175976009693,74.0,0
128.17175976009693,78.0,0
128.17175976009693,82.0,0
128.17175976009693,86.0,0
128.17175976009693,90.0,0
128.17175976009693,94.0,0
128.17175976009693,98.0,0
128.17175976009693,102.0,0
128.17175976009693,106.0,0
128.17175976009693,110.0,0
128.17175976009693,114.0,0
128.17175976009693,118.0,11.83772087097168
128.17175976009693,122.0,11.853304862976074
128.17175976009693,126.0,0
128.17175976009693,130.0,0
128.17175976009693,134.0,0
128.17175976009693,138.0,11.177725791931152
128.17175976009693,142.0,10.504182815551758
128.17175976009693,146.0,0
128.17175976009693,150.0,0
128.17175976009693,154.0,0
128.17175976009693,158.0,0
128.17175976009693,162.0,0
128.17175976009693,166.0,0
128.17175976009693,170.0,0
128.17175976009693,174.0,0
128.17175976009693,178.0,0
128.17175976009693,182.0,0
128.17175976009693,186.0,0
128.17175976009693,190.0,0
128.17175976009693,194.0,0
131.6358613752347,0,0
131.6358613752347,4,0
131.6358613752347,8,0
131.6358613752347,12,0
131.6358613752347,16,0
131.6358613752347,20,0
131.6358613752347,24,0
131.6358613752347,28,0
131.6358613752347,32,0
131.6358613752347,36,0
131.6358613752347,40,0
131.6358613752347,44,0
131.6358613752347,48,0
131.6358613752347,52,0
131.6358613752347,56,0
131.6358613752347,60,0
131.6358613752347,64,0
131.6358613752347,68,0
131.6358613752347,72,0
131.6358613752347,76,0
131.6358613752347,80,0
131.6358613752347,84,0
131.6358613752347,88,0
131.6358613752347,92,0
131.6358613752347,96,0
131.6358613752347,100,0
131.6358613752347,104,0
131.6358613752347,108,0
131.6358613752347,112,0
131.6358613752347,116,11.789995193481445
131.6358613752347,120,11.642430305480957
131.6358613752347,124,0
131.6358613752347,128,0
131.6358613752347,132,0
131.6358613752347,136,0
131.6358613752347,140,10.85912799835205
131.6358613752347,144,10.248321533203125
131.6358613752347,148,0
131.6358613752347,152,0
131.6358613752347,156,0
131.6358613752347,160,0
131.6358613752347,164,0
131.6358613752347,168,0
131.6358613752347,172,0
131.6358613752347,176,0
131.6358613752347,180,0
131.6358613752347,184,0
131.6358613752347,188,0
131.6358613752347,192,0
131.6358613752347,196,0
135.09996299037243,1.9999999999999998,0
135.09996299037243,6.0,0
135.09996299037243,10.0,0
135.09996299037243,14.0,0
135.09996299037243,18.0,0
135.09996299037243,22.0,0
135.09996299037243,26.0,0
135.09996299037243,30.0,0
135.09996299037243,34.0,0
135.09996299037243,38.0,0
135.09996299037243,42.0,0
135.09996299037243,46.0,0
135.09996299037243,50.0,0
135.09996299037243,54.0,0
135.09996299037243,58.0,0
135.09996299037243,62.0,0
135.09996299037243,66.0,0
135.09996299037243,70.0,0
135.09996299037243,74.0,0
135.09996299037243,78.0,0
135.09996299037243,82.0,0
135.09996299037243,86.0,0
135.09996299037243,90.0,2.6535887718200684
135.09996299037243,94.0,8.276471138000488
135.09996299037243,98.0,11.870674133300781
135.09996299037243,102.0,14.050976753234863
135.09996299037243,106.0,0
135.09996299037243,110.0,0
135.09996299037243,114.0,0
135.09996299037243,118.0,11.669950485229492
135.09996299037243,122.0,11.75802230834961
135.09996299037243,126.0,0
135.09996299037243,130.0,0
135.09996299037243,134.0,0
135.09996299037243,138.0,11.009710311889648
135.09996299037243,142.0,10.336525917053223
135.09996299037243,146.0,0
135.09996299037243,150.0,0
135.09996299037243,154.0,0
135.09996299037243,158.0,0
135.09996299037243,162.0,0
135.09996299037243,166.0,0
135.09996299037243,170.0,0
135.09996299037243,174.0,0
135.09996299037243,178.0,0
135.09996299037243,182.0,0
135.09996299037243,186.0,0
135.09996299037243,190.0,0
135.09996299037243,194.0,0
138.5640646055102,0,0
138.5640646055102,4,0
138.5640646055102,8,0
138.5640646055102,12,0
138.5640646055102,16,0
138.5640646055102,20,0
138.5640646055102,24,0
138.5640646055102,28,0
138.5640646055102,32,0
138.5640646055102,36,0
138.5640646055102,40,0
138.5640646055102,44,0
138.5640646055102,48,0
138.5640646055102,52,0
138.5640646055102,56,0
138.5640646055102,60,0
138.5640646055102,64,0
138.5640646055102,68,0
138.5640646055102,72,0
138.5640646055102,76,0
138.5640646055102,80,0
138.5640646055102,84,0
138.5640646055102,88,0
138.5640646055102,92,4.983285903930664
138.5640646055102,96,0
138.5640646055102,100,12.83755111694336
138.5640646055102,104,15.795116424560547
138.5640646055102,108,18.444080352783203
138.5640646055102,112,19.791423797607422
138.5640646055102,116,11.414730072021484
138.5640646055102,120,11.474684715270996
138.5640646055102,124,11.496895790100098
138.5640646055102,128,0
138.5640646055102,132,0
138.5640646055102,136,0
138.5640646055102,140,10.363408088684082
138.5640646055102,144,10.051438331604004
138.5640646055102,148,0
138.5640646055102,152,0
138.5640646055102,156,0
138.5640646055102,160,0
138.5640646055102,164,0
138.5640646055102,168,0
138.5640646055102,172,0
138.5640646055102,176,0
138.5640646055102,180,0
138.5640646055102,184,0
138.5640646055102,188,0
138.5640646055102,192,0
138.5640646055102,196,0
142.02816622064796,1.9999999999999998,0
142.02816622064796,6.0,0
142.02816622064796,10.0,0
142.02816622064796,14.0,0
142.02816622064796,18.0,0
142.02816622064796,22.0,0
142.02816622064796,26.0,0
142.02816622064796,30.0,0
142.02816622064796,34.0,0
142.02816622064796,38.0,0
142.02816622064796,42.0,0
142.02816622064796,46.0,0
142.02816622064796,50.0,0
142.02816622064796,54.0,0
142.02816622064796,58.0,0
142.02816622064796,62.0,0
142.02816622064796,66.0,0
142.02816622064796,70.0,0
142.02816622064796,74.0,0
142.02816622064796,78.0,0
142.02816622064796,82.0,0
142.02816622064796,86.0,0
142.02816622064796,90.0,1.1802855730056763
142.02816622064796,94.0,5.707760810852051
142.02816622064796,98.0,11.28109359741211
142.02816622064796,102.0,14.03499698638916
142.02816622064796,106.0,16.6068115234375
142.02816622064796,110.0,18.626163482666016
142.02816622064796,114.0,20.174610137939453
142.02816622064796,118.0,21.911361694335938
142.02816622064796,122.0,11.550262451171875
142.02816622064796,126.0,0
142.02816622064796,130.0,0
142.02816622064796,134.0,0
142.02816622064796,138.0,10.453250885009766
142.02816622064796,142.0,10.168710708618164
142.02816622064796,146.0,0
142.02816622064796,150.0,0
142.02816622064796,154.0,0
142.02816622064796,158.0,0
142.02816622064796,162.0,0
142.02816622064796,166.0,0
142.02816622064796,170.0,0
142.02816622064796,174.0,0
142.02816622064796,178.0,0
142.02816622064796,182.0,0
142.02816622064796,186.0,0
142.02816622064796,190.0,0
142.02816622064796,194.0,0
145.4922678357857,0,0
145.4922678357857,4,0
145.4922678357857,8,0
145.4922678357857,12,0
145.4922678357857,16,0
145.4922678357857,20,0
145.4922678357857,24,0
145.4922678357857,28,0
145.4922678357857,32,0
145.4922678357857,36,0
145.4922678357857,40,0
145.4922678357857,44,0
145.4922678357857,48,0
145.4922678357857,52,0
145.4922678357857,56,0
145.4922678357857,60,0
145.4922678357857,64,0
145.4922678357857,68,0
145.4922678357857,72,0
145.4922678357857,76,0
145.4922678357857,80,0
145.4922678357857,84,0
145.4922678357857,88,0
145.4922678357857,92,2.7607975006103516
145.4922678357857,96,8.222099304199219
145.4922678357857,100,11.776883125305176
145.4922678357857,104,14.829380989074707
145.4922678357857,108,17.2415771484375
145.4922678357857,112,19.12156105041504
145.4922678357857,116,20.546369552612305
145.4922678357857,120,21.68199348449707
145.4922678357857,124,11.535516738891602
145.4922678357857,128,0
145.4922678357857,132,0
145.4922678357857,136,0
145.4922678357857,140,10.19579029083252
145.4922678357857,144,9.952276229858398
145.4922678357857,148,0
145.4922678357857,152,0
145.4922678357857,156,0
145.4922678357857,160,0
145.4922678357857,164,0
145.4922678357857,168,0
145.4922678357857,172,0
145.4922678357857,176,0
145.4922678357857,180,0
145.4922678357857,184,0
145.4922678357857,188,0
145.4922678357857,192,0
145.4922678357857,196,0
148.95636945092346,1.9999999999999998,0
148.95636945092346,6.0,0
148.95636945092346,10.0,0
148.95636945092346,14.0,0
148.95636945092346,18.0,0
148.95636945092346,22.0,0
148.95636945092346,26.0,0
148.95636945092346,30.0,0
148.95636945092346,34.0,0
148.95636945092346,38.0,0
148.95636945092346,42.0,0
148.95636945092346,46.0,0
148.95636945092346,50.0,0
148.95636945092346,54.0,0
148.95636945092346,58.0,0
148.95636945092346,62.0,0
148.95636945092346,66.0,0
148.95636945092346,70.0,0
148.95636945092346,74.0,0
148.95636945092346,78.0,0
148.95636945092346,82.0,0
148.95636945092346,86.0,0
148.95636945092346,90.0,0
148.95636945092346,94.0,3.651935577392578
148.95636945092346,98.0,8.549681663513184
148.95636945092346,102.0,12.280098915100098
148.95636945092346,106.0,15.19786262512207
148.95636945092346,110.0,17.5051212310791
148.95636945092346,114.0,19.278257369995117
148.95636945092346,118.0,20.60344886779785
148.95636945092346,122.0,21.556522369384766
148.95636945092346,126.0,0
148.95636945092346,130.0,0
148.95636945092346,134.0,0
148.95636945092346,138.0,10.395681381225586
148.95636945092346,142.0,10.000829696655273
148.95636945092346,146.0,7.857483386993408
148.95636945092346,150.0,7.398773670196533
148.95636945092346,154.0,7.390866279602051
148.95636945092346,158.0,7.414618968963623
148.95636945092346,162.0,0
148.95636945092346,166.0,0
148.95636945092346,170.0,0
148.95636945092346,174.0,0
148.95636945092346,178.0,0
148.95636945092346,182.0,0
148.95636945092346,186.0,0
148.95636945092346,190.0,0
148.95636945092346,194.0,0
152.42047106606122,0,0
152.42047106606122,4,0
152.42047106606122,8,0
152.42047106606122,12,0
152.42047106606122,16,0
152.42047106606122,20,0
152.42047106606122,24,0
152.42047106606122,28,0
152.42047106606122,32,0
152.42047106606122,36,0
152.42047106606122,40,0
152.42047106606122,44,0
152.42047106606122,48,0
152.42047106606122,52,0
152.42047106606122,56,0
152.42047106606122,60,0
152.42047106606122,64,0
152.42047106606122,68,0
152.42047106606122,72,0
152.42047106606122,76,0
152.42047106606122,80,0
152.42047106606122,84,0
152.42047106606122,88,0
152.42047106606122,92,0
152.42047106606122,96,3.839813709259033
152.42047106606122,100,8.641888618469238
152.42047106606122,104,12.292852401733398
152.42047106606122,108,15.133169174194336
152.42047106606122,112,17.35511589050293
152.42047106606122,116,19.05804443359375
152.42047106606122,120,20.302820205688477
152.42047106606122,124,21.132190704345703
152.42047106606122,128,22.061721801757812
152.42047106606122,132,21.787439346313477
152.42047106606122,136,20.047775268554688
152.42047106606122,140,10.028132438659668
152.42047106606122,144,9.730937004089355
152.42047106606122,148,8.005897521972656
152.42047106606122,152,8.005898475646973
152.42047106606122,156,8.005899429321289
152.42047106606122,160,7.340184211730957
152.42047106606122,164,0
152.42047106606122,168,0
152.42047106606122,172,0
152.42047106606122,176,0
152.42047106606122,180,0
152.42047106606122,184,0
152.42047106606122,188,0
152.42047106606122,192,0
152.42047106606122,196,0
155.88457268119896,1.9999999999999998,0
155.88457268119896,6.0,0
155.88457268119896,10.0,0
155.88457268119896,14.0,0
155.88457268119896,18.0,0
155.88457268119896,22.0,0
155.88457268119896,26.0,0
155.88457268119896,30.0,0
155.88457268119896,34.0,0
155.88457268119896,38.0,0
155.88457268119896,42.0,0
155.88457268119896,46.0,0
155.88457268119896,50.0,0
155.88457268119896,54.0,0
155.88457268119896,58.0,0
155.88457268119896,62.0,0
155.88457268119896,66.0,0
155.88457268119896,70.0,0
155.88457268119896,74.0,0
155.88457268119896,78.0,0
155.88457268119896,82.0,0
155.88457268119896,86.0,0
155.88457268119896,90.0,0
155.88457268119896,94.0,0
155.88457268119896,98.0,3.2472281455993652
155.88457268119896,102.0,8.12894344329834
155.88457268119896,106.0,11.773600578308105
155.88457268119896,110.0,14.594510078430176
155.88457268119896,114.0,16.767892837524414
155.88457268119896,118.0,18.405597686767578
155.88457268119896,122.0,19.57960319519043
155.88457268119896,126.0,20.323740005493164
155.88457268119896,130.0,20.659677505493164
155.88457268119896,134.0,20.604774475097656
155.88457268119896,138.0,20.34486961364746
155.88457268119896,142.0,19.900466918945312
155.88457268119896,146.0,19.589902877807617
155.88457268119896,150.0,18.797521591186523
155.88457268119896,154.0,18.001855850219727
155.88457268119896,158.0,17.614715576171875
155.88457268119896,162.0,16.470840454101562
155.88457268119896,166.0,16.187175750732422
155.88457268119896,170.0,16.133848190307617
155.88457268119896,174.0,15.91446590423584
155.88457268119896,178.0,0
155.88457268119896,182.0,0
155.88457268119896,186.0,0
155.88457268119896,190.0,0
155.88457268119896,194.0,0
159.34867429633672,0,0
159.34867429633672,4,0
159.34867429633672,8,0
159.34867429633672,12,0
159.34867429633672,16,0
159.34867429633672,20,0
159.34867429633672,24,0
159.34867429633672,28,0
159.34867429633672,32,0
159.34867429633672,36,0
159.34867429633672,40,0
159.34867429633672,44,0
159.34867429633672,48,0
159.34867429633672,52,0
159.34867429633672,56,0
159.34867429633672,60,0
159.34867429633672,64,0
159.34867429633672,68,0
159.34867429633672,72,0
159.34867429633672,76,0
159.34867429633672,80,0
159.34867429633672,84,0
159.34867429633672,88,0
159.34867429633672,92,0
159.34867429633672,96,0
159.34867429633672,100,1.734621286392212
159.34867429633672,104,6.916172027587891
159.34867429633672,108,10.690587043762207
159.34867429633672,112,13.540974617004395
159.34867429633672,116,15.695395469665527
159.34867429633672,120,17.284290313720703
159.34867429633672,124,18.37774658203125
159.34867429633672,128,19.021610260009766
159.34867429633672,132,19.237525939941406
159.34867429633672,136,19.035442352294922
159.34867429633672,140,18.608016967773438
159.34867429633672,144,18.18191146850586
159.34867429633672,148,17.757266998291016
159.34867429633672,152,17.326601028442383
159.34867429633672,156,16.903087615966797
159.34867429633672,160,16.5943546295166
159.34867429633672,164,16.0548095703125
159.34867429633672,168,15.629566192626953
159.34867429633672,172,15.319165229797363
159.34867429633672,176,13.78291130065918
159.34867429633672,180,0
159.34867429633672,184,0
159.34867429633672,188,0
159.34867429633672,192,0
159.34867429633672,196,0
162.8127759114745,1.9999999999999998,0
162.8127759114745,6.0,0
162.8127759114745,10.0,0
162.8127759114745,14.0,0
162.8127759114745,18.0,0
162.8127759114745,22.0,0
162.8127759114745,26.0,0
162.8127759114745,30.0,0
162.8127759114745,34.0,0
162.8127759114745,38.0,0
162.8127759114745,42.0,0
162.8127759114745,46.0,0
162.8127759114745,50.0,0
162.8127759114745,54.0,0
162.8127759114745,58.0,0
162.8127759114745,62.0,0
162.8127759114745,66.0,0
162.8127759114745,70.0,0
162.8127759114745,74.0,0
162.8127759114745,78.0,0
162.8127759114745,82.0,0
162.8127759114745,86.0,0
162.8127759114745,90.0,0
162.8127759114745,94.0,0
162.8127759114745,98.0,0
162.8127759114745,102.0,0
162.8127759114745,106.0,5.045771598815918
162.8127759114745,110.0,9.083732604980469
162.8127759114745,114.0,12.029324531555176
162.8127759114745,118.0,14.19689655303955
162.8127759114745,122.0,15.73808479309082
162.8127759114745,126.0,16.744041442871094
162.8127759114745,130.0,17.25914192199707
162.8127759114745,134.0,17.302642822265625
162.8127759114745,138.0,16.954517364501953
162.8127759114745,142.0,16.553569793701172
162.8127759114745,146.0,16.15627670288086
162.8127759114745,150.0,15.767120361328125
162.8127759114745,154.0,15.374014854431152
162.8127759114745,158.0,14.983275413513184
162.8127759114745,162.0,14.594356536865234
162.8127759114745,166.0,14.20413875579834
162.8127759114745,170.0,13.81484317779541
162.8127759114745,174.0,13.125076293945312
162.8127759114745,178.0,0
162.8127759114745,182.0,0
162.8127759114745,186.0,0
162.8127759114745,190.0,0
162.8127759114745,194.0,0
166.27687752661222,0,0
166.27687752661222,4,0
166.27687752661222,8,0
166.27687752661222,12,0
166.27687752661222,16,0
166.27687752661222,20,0
166.27687752661222,24,0
166.27687752661222,28,0
166.27687752661222,32,0
166.27687752661222,36,0
166.27687752661222,40,0
166.27687752661222,44,0
166.27687752661222,48,0
166.27687752661222,52,0
166.27687752661222,56,0
166.27687752661222,60,0
166.27687752661222,64,0
166.27687752661222,68,0
166.27687752661222,72,0
166.27687752661222,76,0
166.27687752661222,80,0
166.27687752661222,84,0
166.27687752661222,88,0
166.27687752661222,92,0
166.27687752661222,96,0
166.27687752661222,100,0
166.27687752661222,104,0
166.27687752661222,108,2.4822065830230713
166.27687752661222,112,7.050013542175293
166.27687752661222,116,10.183574676513672
166.27687752661222,120,12.39193058013916
166.27687752661222,124,13.878363609313965
166.27687752661222,128,14.766672134399414
166.27687752661222,132,15.106634140014648
166.27687752661222,136,14.926409721374512
166.27687752661222,140,14.574732780456543
166.27687752661222,144,14.224688529968262
166.27687752661222,148,13.882525444030762
166.27687752661222,152,13.540681838989258
166.27687752661222,156,13.20184326171875
166.27687752661222,160,12.862410545349121
166.27687752661222,164,12.524319648742676
166.27687752661222,168,12.18541145324707
166.27687752661222,172,11.732817649841309
166.27687752661222,176,0
166.27687752661222,180,0
166.27687752661222,184,0
166.27687752661222,188,0
166.27687752661222,192,0
166.27687752661222,196,0
169.74097914175,1.9999999999999998,0
169.74097914175,6.0,0
169.74097914175,10.0,0
169.74097914175,14.0,0
169.74097914175,18.0,0
169.74097914175,22.0,0
169.74097914175,26.0,0
169.74097914175,30.0,0
169.74097914175,34.0,0
169.74097914175,38.0,0
169.74097914175,42.0,0
169.74097914175,46.0,0
169.74097914175,50.0,0
169.74097914175,54.0,0
169.74097914175,58.0,0
169.74097914175,62.0,0
169.74097914175,66.0,0
169.74097914175,70.0,0
169.74097914175,74.0,0
169.74097914175,78.0,0
169.74097914175,82.0,0
169.74097914175,86.0,0
169.74097914175,90.0,0
169.74097914175,94.0,0
169.74097914175,98.0,0
169.74097914175,102.0,0
169.74097914175,106.0,0
169.74097914175,110.0,0
169.74097914175,114.0,4.628954887390137
169.74097914175,118.0,8.105752944946289
169.74097914175,122.0,10.398388862609863
169.74097914175,126.0,11.839835166931152
169.74097914175,130.0,12.564650535583496
169.74097914175,134.0,12.641690254211426
169.74097914175,138.0,12.362221717834473
169.74097914175,142.0,12.07807445526123
169.74097914175,146.0,11.795042037963867
169.74097914175,150.0,11.516169548034668
169.74097914175,154.0,11.238995552062988
169.74097914175,158.0,10.96044921875
169.74097914175,162.0,10.681756973266602
169.74097914175,166.0,10.40336799621582
169.74097914175,170.0,10.068644523620605
169.74097914175,174.0,0
169.74097914175,178.0,0
169.74097914175,182.0,0
169.74097914175,186.0,0
169.74097914175,190.0,0
169.74097914175,194.0,0
173.20508075688775,0,0
173.20508075688775,4,0
173.20508075688775,8,0
173.20508075688775,12,0
173.20508075688775,16,0
173.20508075688775,20,0
173.20508075688775,24,0
173.20508075688775,28,0
173.20508075688775,32,0
173.20508075688775,36,0
173.20508075688775,40,0
173.20508075688775,44,0
173.20508075688775,48,0
173.20508075688775,52,0
173.20508075688775,56,0
173.20508075688775,60,0
173.20508075688775,64,0
173.20508075688775,68,0
173.20508075688775,72,0
173.20508075688775,76,0
173.20508075688775,80,0
173.20508075688775,84,0
173.20508075688775,88,0
173.20508075688775,92,0
173.20508075688775,96,0
173.20508075688775,100,0
173.20508075688775,104,0
173.20508075688775,108,0
173.20508075688775,112,0
173.20508075688775,116,0
173.20508075688775,120,0
173.20508075688775,124,0
173.20508075688775,128,0
173.20508075688775,132,0
173.20508075688775,136,0
173.20508075688775,140,0
173.20508075688775,144,0
173.20508075688775,148,0
173.20508075688775,152,0
173.20508075688775,156,0
173.20508075688775,160,0
173.20508075688775,164,0
173.20508075688775,168,0
173.20508075688775,172,0
173.20508075688775,176,0
173.20508075688775,180,0
173.20508075688775,184,0
173.20508075688775,188,0
173.20508075688775,192,0
173.20508075688775,196,0
176.6691823720255,1.9999999999999998,0
176.6691823720255,6.0,0
176.6691823720255,10.0,0
176.6691823720255,14.0,0
176.6691823720255,18.0,0
176.6691823720255,22.0,0
176.6691823720255,26.0,0
176.6691823720255,30.0,0
176.6691823720255,34.0,0
176.6691823720255,38.0,0
176.6691823720255,42.0,0
176.6691823720255,46.0,0
176.6691823720255,50.0,0
176.6691823720255,54.0,0
176.6691823720255,58.0,0
176.6691823720255,62.0,0
176.6691823720255,66.0,0
176.6691823720255,70.0,0
176.6691823720255,74.0,0
176.6691823720255,78.0,0
176.6691823720255,82.0,0
176.6691823720255,86.0,0
176.6691823720255,90.0,0
176.6691823720255,94.0,0
176.6691823720255,98.0,0
176.6691823720255,102.0,0
176.6691823720255,106.0,0
176.6691823720255,110.0,0
176.6691823720255,114.0,0
176.6691823720255,118.0,0
176.6691823720255,122.0,0
176.6691823720255,126.0,0
176.6691823720255,130.0,0
176.6691823720255,134.0,0
176.6691823720255,138.0,0
176.6691823720255,142.0,0
176.6691823720255,146.0,0
176.6691823720255,150.0,0
176.6691823720255,154.0,0
176.6691823720255,158.0,0
176.6691823720255,162.0,0
176.6691823720255,166.0,0
176.6691823720255,170.0,0
176.6691823720255,174.0,0
176.6691823720255,178.0,0
176.6691823720255,182.0,0
176.6691823720255,186.0,0
176.6691823720255,190.0,0
176.6691823720255,194.0,0
180.13328398716325,0,0
180.13328398716325,4,0
180.13328398716325,8,0
180.13328398716325,12,0
180.13328398716325,16,0
180.13328398716325,20,0
180.13328398716325,24,0
180.13328398716325,28,0
180.13328398716325,32,0
180.13328398716325,36,0
180.13328398716325,40,0
180.13328398716325,44,0
180.13328398716325,48,0
180.13328398716325,52,0
180.13328398716325,56,0
180.13328398716325,60,0
180.13328398716325,64,0
180.13328398716325,68,0
180.13328398716325,72,0
180.13328398716325,76,0
180.13328398716325,80,0
180.13328398716325,84,0
180.13328398716325,88,0
180.13328398716325,92,0
180.13328398716325,96,0
180.13328398716325,100,0
180.13328398716325,104,0
180.13328398716325,108,0
180.13328398716325,112,0
180.13328398716325,116,0
180.13328398716325,120,0
180.13328398716325,124,0
180.13328398716325,128,0
180.13328398716325,132,0
180.13328398716325,136,0
180.13328398716325,140,0
180.13328398716325,144,0
180.13328398716325,148,0
180.13328398716325,152,0
180.13328398716325,156,0
180.13328398716325,160,0
180.13328398716325,164,0
180.13328398716325,168,0
180.13328398716325,172,0
180.13328398716325,176,0
180.13328398716325,180,0
180.13328398716325,184,0
180.13328398716325,188,0
180.13328398716325,192,0
180.13328398716325,196,0
183.59738560230102,1.9999999999999998,0
183.59738560230102,6.0,0
183.59738560230102,10.0,0
183.59738560230102,14.0,0
183.59738560230102,18.0,0
183.59738560230102,22.0,0
183.59738560230102,26.0,0
183.59738560230102,30.0,0
183.59738560230102,34.0,0
183.59738560230102,38.0,0
183.59738560230102,42.0,0
183.59738560230102,46.0,0
183.59738560230102,50.0,0
183.59738560230102,54.0,0
183.59738560230102,58.0,0
183.59738560230102,62.0,0
183.59738560230102,66.0,0
183.59738560230102,70.0,0
183.59738560230102,74.0,0
183.59738560230102,78.0,0
183.59738560230102,82.0,0
183.59738560230102,86.0,0
183.59738560230102,90.0,0
183.59738560230102,94.0,0
183.59738560230102,98.0,0
183.59738560230102,102.0,0
183.59738560230102,106.0,0
183.59738560230102,110.0,0
183.59738560230102,114.0,0
183.59738560230102,118.0,0
183.59738560230102,122.0,0
183.59738560230102,126.0,0
183.59738560230102,130.0,0
183.59738560230102,134.0,0
183.59738560230102,138.0,0
183.59738560230102,142.0,0
183.59738560230102,146.0,0
183.59738560230102,150.0,0
183.59738560230102,154.0,0
183.59738560230102,158.0,0
183.59738560230102,162.0,0
183.59738560230102,166.0,0
183.59738560230102,170.0,0
183.59738560230102,174.0,0
183.59738560230102,178.0,0
183.59738560230102,182.0,0
183.59738560230102,186.0,0
183.59738560230102,190.0,0
183.59738560230102,194.0,0
187.06148721743875,0,0
187.06148721743875,4,0
187.06148721743875,8,0
187.06148721743875,12,0
187.06148721743875,16,0
187.06148721743875,20,0
187.06148721743875,24,0
187.06148721743875,28,0
187.06148721743875,32,0
187.06148721743875,36,0
187.06148721743875,40,0
187.06148721743875,44,0
187.06148721743875,48,0
187.06148721743875,52,0
187.06148721743875,56,0
187.06148721743875,60,0
187.06148721743875,64,0
187.06148721743875,68,0
187.06148721743875,72,0
187.06148721743875,76,0
187.06148721743875,80,0
187.06148721743875,84,0
187.06148721743875,88,0
187.06148721743875,92,0
187.06148721743875,96,0
187.06148721743875,100,0
187.06148721743875,104,0
187.06148721743875,108,0
187.06148721743875,112,0
187.06148721743875,116,0
187.06148721743875,120,0
187.06148721743875,124,0
187.06148721743875,128,0
187.06148721743875,132,0
187.06148721743875,136,0
187.06148721743875,140,0
187.06148721743875,144,0
187.06148721743875,148,0
187.06148721743875,152,0
187.06148721743875,156,0
187.06148721743875,160,0
187.06148721743875,164,0
187.06148721743875,168,0
187.06148721743875,172,0
187.06148721743875,176,0
187.06148721743875,180,0
187.06148721743875,184,0
187.06148721743875,188,0
187.06148721743875,192,0
187.06148721743875,196,0
190.52558883257652,1.9999999999999998,0
190.52558883257652,6.0,0
190.52558883257652,10.0,0
190.52558883257652,14.0,0
190.52558883257652,18.0,0
190.52558883257652,22.0,0
190.52558883257652,26.0,0
190.52558883257652,30.0,0
190.52558883257652,34.0,0
190.52558883257652,38.0,0
190.52558883257652,42.0,0
190.52558883257652,46.0,0
190.52558883257652,50.0,0
190.52558883257652,54.0,0
190.52558883257652,58.0,0
190.52558883257652,62.0,0
190.52558883257652,66.0,0
190.52558883257652,70.0,0
190.52558883257652,74.0,0
190.52558883257652,78.0,0
190.52558883257652,82.0,0
190.52558883257652,86.0,0
190.52558883257652,90.0,0
190.52558883257652,94.0,0
190.52558883257652,98.0,0
190.52558883257652,102.0,0
190.52558883257652,106.0,0
190.52558883257652,110.0,0
190.52558883257652,114.0,0
190.52558883257652,118.0,0
190.52558883257652,122.0,0
190.52558883257652,126.0,0
190.52558883257652,130.0,0
190.52558883257652,134.0,0
190.52558883257652,138.0,0
190.52558883257652,142.0,0
190.52558883257652,146.0,0
190.52558883257652,150.0,0
190.52558883257652,154.0,0
190.52558883257652,158.0,0
190.52558883257652,162.0,0
190.52558883257652,166.0,0
190.52558883257652,170.0,0
190.52558883257652,174.0,0
190.52558883257652,178.0,0
190.52558883257652,182.0,0
190.52558883257652,186.0,0
190.52558883257652,190.0,0
190.52558883257652,194.0,0
193.98969044771428,0,0
193.98969044771428,4,0
193.98969044771428,8,0
